547324.312500 3380313.000000 18.977270
547327.375000 3380312.750000 19.069691
547331.187500 3380313.750000 19.237053
547333.562500 3380312.750000 18.921309
547337.437500 3380311.500000 19.212866
547347.312500 3380312.250000 20.475170
547349.687500 3380312.000000 20.394690
547352.062500 3380311.000000 19.837469
547361.687500 3380310.500000 19.653822
547364.187500 3380310.000000 19.997072
547371.062500 3380307.250000 26.087221
547385.812500 3380308.500000 19.232414
547399.500000 3380307.500000 19.276890
547401.562500 3380306.250000 18.930868
547416.437500 3380305.750000 19.966175
547419.500000 3380305.500000 20.014700
547428.812500 3380304.750000 19.022131
547433.062500 3380305.500000 19.355762
547434.875000 3380303.500000 19.461935
547437.937500 3380304.000000 19.833090
547447.000000 3380302.500000 20.006659
547453.875000 3380303.500000 20.303856
547456.312500 3380302.500000 20.270241
547460.625000 3380302.250000 22.239553
547466.375000 3380300.750000 24.376310
547471.937500 3380302.250000 20.018177
547481.625000 3380300.750000 19.833902
547484.875000 3380299.500000 19.396988
547491.062500 3380299.250000 19.176136
547493.250000 3380299.500000 19.148365
547496.562500 3380299.250000 19.218418
547499.437500 3380299.500000 19.134727
547502.500000 3380299.250000 19.111435
547506.250000 3380299.500000 19.130999
547509.250000 3380299.250000 19.090946
547511.687500 3380298.000000 19.210531
547514.812500 3380298.250000 19.108843
547517.812500 3380298.000000 19.244385
547520.875000 3380297.750000 19.258503
547530.125000 3380296.250000 18.937561
547477.062500 3380207.000000 291.948883
547542.000000 3380295.250000 21.095667
547561.687500 3380293.500000 18.763409
547564.250000 3380293.750000 19.218781
547572.812500 3380291.750000 21.969969
547576.187500 3380291.250000 22.458511
547600.562500 3380290.750000 19.586395
547603.687500 3380291.000000 19.331770
547616.750000 3380290.750000 19.768768
547619.250000 3380288.500000 20.013779
547629.187500 3380288.250000 20.229856
547631.062500 3380287.750000 20.028679
547640.750000 3380287.000000 19.813196
547647.125000 3380288.250000 19.738022
547649.500000 3380286.750000 19.868258
547666.125000 3380286.500000 20.185202
547668.312500 3380285.750000 19.763275
547672.750000 3380286.250000 19.571032
547674.500000 3380284.250000 19.601650
547689.437500 3380283.250000 19.389540
547705.062500 3380283.500000 20.107006
547708.000000 3380281.500000 20.158979
547710.750000 3380281.250000 19.856407
547718.562500 3380281.750000 19.815939
547720.375000 3380280.750000 19.654507
547728.000000 3380281.500000 18.977089
547729.500000 3380280.250000 18.543533
547742.437500 3380280.750000 19.803608
547751.250000 3380278.000000 20.273270
547773.500000 3380278.250000 19.864164
547776.000000 3380276.250000 19.479488
547778.625000 3380276.000000 19.409807
547781.437500 3380277.250000 19.539675
547785.187500 3380277.500000 19.149139
547788.937500 3380276.000000 19.050385
547794.000000 3380275.000000 19.306482
547800.125000 3380274.500000 19.212284
547802.750000 3380274.250000 19.188934
547110.750000 3380289.750000 143.195541
547107.187500 3380327.250000 35.262913
547118.875000 3380313.000000 72.641571
547131.687500 3380263.000000 212.078339
547145.687500 3380257.750000 226.531937
547136.125000 3380332.500000 19.187288
547143.812500 3380330.000000 19.240366
547147.250000 3380330.250000 19.370018
547149.062500 3380329.500000 19.650965
547152.062500 3380330.750000 19.577425
547160.000000 3380330.250000 19.498638
547162.625000 3380330.000000 19.407875
547181.687500 3380327.250000 19.816912
547186.937500 3380326.500000 19.702869
547189.625000 3380328.000000 19.476957
547204.875000 3380326.750000 19.790295
547207.875000 3380325.000000 19.924982
547218.312500 3380325.750000 20.024567
547220.125000 3380325.500000 19.639196
547223.000000 3380324.250000 19.260298
547233.062500 3380323.000000 19.634480
547251.562500 3380323.250000 19.314306
547281.875000 3380319.000000 19.020870
547296.875000 3380318.250000 18.954891
547299.687500 3380319.250000 19.338577
547312.625000 3380316.500000 19.073553
547322.687500 3380317.250000 19.549536
547329.187500 3380315.750000 19.285061
547330.625000 3380315.250000 18.999195
547333.875000 3380314.500000 19.247145
547344.187500 3380315.250000 20.015249
547347.687500 3380315.000000 20.629814
547349.875000 3380313.000000 20.349703
547352.000000 3380312.750000 20.158972
547358.312500 3380313.250000 19.674929
547370.500000 3380312.000000 20.142998
547377.000000 3380313.250000 19.544228
547380.312500 3380312.750000 19.501844
547382.875000 3380312.500000 19.423615
547389.125000 3380310.250000 19.442369
547399.125000 3380309.500000 19.443714
547405.375000 3380309.500000 19.077217
547410.937500 3380308.500000 19.573828
547421.437500 3380308.250000 19.601641
547423.687500 3380307.500000 19.322302
547426.750000 3380307.250000 19.382668
547429.062500 3380308.000000 19.105068
547432.000000 3380307.000000 19.280380
547435.187500 3380307.500000 19.039766
547444.562500 3380307.250000 20.558142
547457.000000 3380305.750000 21.664005
547459.250000 3380304.500000 22.337868
547465.250000 3380303.500000 22.946302
547473.937500 3380304.000000 19.775723
547481.875000 3380304.750000 19.379822
547484.187500 3380302.750000 19.503548
547488.062500 3380304.250000 19.179085
547491.250000 3380302.250000 19.252735
547493.500000 3380303.000000 19.090734
547504.000000 3380303.000000 19.286211
547507.187500 3380302.750000 19.448090
547511.937500 3380301.000000 19.088127
547530.312500 3380299.250000 18.979259
547533.437500 3380299.250000 18.870192
547536.375000 3380298.500000 19.190928
547542.250000 3380299.000000 22.039164
547546.687500 3380297.250000 20.286648
547560.750000 3380297.250000 18.830084
547564.562500 3380298.000000 19.424025
547569.812500 3380296.250000 20.750120
547582.125000 3380295.000000 20.365618
547594.375000 3380293.500000 20.279751
547611.625000 3380293.250000 19.102840
547613.437500 3380292.250000 19.567961
547616.125000 3380293.000000 19.463827
547627.937500 3380291.250000 20.403076
547637.312500 3380290.500000 20.191856
547641.062500 3380290.000000 20.382780
547643.125000 3380291.000000 21.256561
547647.187500 3380289.250000 19.605062
547649.437500 3380289.250000 20.447216
547664.937500 3380288.250000 20.436272
547674.062500 3380289.000000 20.219374
547678.937500 3380288.750000 19.835716
547681.000000 3380287.500000 19.678989
547684.812500 3380288.500000 19.551680
547687.687500 3380288.250000 19.507547
547690.562500 3380286.250000 19.174761
547693.687500 3380286.250000 18.898256
547695.750000 3380285.750000 19.295633
547700.375000 3380286.750000 19.816914
547702.687500 3380287.000000 19.394825
547705.125000 3380285.250000 18.786873
547709.625000 3380286.500000 19.474966
547717.125000 3380284.000000 19.478426
547721.000000 3380283.500000 19.660223
547726.312500 3380284.000000 19.691338
547729.812500 3380284.500000 19.821507
547735.687500 3380283.500000 19.179239
547741.812500 3380283.750000 19.749258
547751.437500 3380283.000000 19.792645
547756.875000 3380281.500000 19.815762
547763.625000 3380281.750000 20.335663
547772.375000 3380281.250000 19.856625
547775.687500 3380279.250000 19.548315
547785.437500 3380280.500000 18.950184
547787.687500 3380279.000000 19.057564
547793.687500 3380278.750000 19.457283
547804.437500 3380278.250000 19.133669
547122.437500 3380333.000000 24.512354
547137.125000 3380335.250000 19.766359
547143.625000 3380332.750000 20.055191
547146.500000 3380332.750000 19.447912
547149.375000 3380333.000000 19.630659
547152.500000 3380333.250000 19.437296
547156.375000 3380332.000000 19.309345
547168.687500 3380331.000000 19.294867
547171.000000 3380331.750000 19.258875
547190.062500 3380331.250000 19.345678
547198.812500 3380329.500000 19.437023
547202.562500 3380328.250000 19.466619
547205.625000 3380328.000000 19.792215
547211.125000 3380329.500000 19.754135
547217.562500 3380327.750000 19.088858
547220.125000 3380327.000000 19.198036
547223.312500 3380326.250000 19.481846
547235.562500 3380326.250000 19.329884
547243.375000 3380327.000000 19.259266
547244.750000 3380325.250000 19.566792
547254.062500 3380325.250000 18.979486
547272.500000 3380323.250000 19.068073
547282.125000 3380322.000000 19.258848
547288.250000 3380321.500000 19.060572
547297.062500 3380321.250000 19.052734
547306.062500 3380320.250000 19.094725
547312.875000 3380319.500000 19.185452
547315.562500 3380319.750000 18.997875
547318.562500 3380319.000000 19.138687
547328.875000 3380320.250000 19.108109
547341.000000 3380317.500000 18.986788
547343.687500 3380317.250000 19.323236
547346.187500 3380316.750000 19.558407
547349.750000 3380318.000000 20.628675
547352.875000 3380316.000000 20.371052
547361.625000 3380316.000000 19.558262
547368.125000 3380315.000000 19.698040
547371.625000 3380314.750000 19.657307
547373.875000 3380314.500000 19.519466
547383.062500 3380313.750000 19.347319
547396.562500 3380298.500000 59.507053
547408.562500 3380311.750000 19.441000
547410.687500 3380311.500000 19.608322
547417.625000 3380311.250000 18.929520
547423.500000 3380311.000000 19.613152
547427.187500 3380312.000000 19.498316
547438.437500 3380310.250000 19.389194
547441.875000 3380310.750000 19.696762
547444.812500 3380308.500000 20.260790
547454.500000 3380307.750000 20.161589
547456.875000 3380307.250000 21.501463
547459.812500 3380308.500000 21.953661
547463.375000 3380306.500000 22.055006
547469.125000 3380307.750000 19.568811
547473.062500 3380308.500000 19.475704
547476.312500 3380308.250000 19.406267
547488.562500 3380306.000000 19.082211
547493.687500 3380305.500000 19.318951
547497.625000 3380304.750000 19.150541
547503.687500 3380304.250000 19.296848
547510.125000 3380305.000000 19.509480
547515.562500 3380303.250000 19.110012
547518.687500 3380302.750000 19.214279
547522.187500 3380302.750000 18.990381
547524.812500 3380302.500000 19.144968
547531.625000 3380303.750000 19.481009
547534.062500 3380302.000000 18.719124
547537.562500 3380301.500000 18.979464
547540.250000 3380302.500000 21.228134
547545.187500 3380300.250000 22.318348
547564.187500 3380299.250000 19.405888
547567.437500 3380299.750000 18.772236
547575.937500 3380296.250000 24.975679
547578.750000 3380296.500000 24.268700
547589.562500 3380299.250000 19.346117
547592.250000 3380297.250000 19.429228
547595.500000 3380298.750000 19.243765
547598.187500 3380296.250000 20.001230
547601.187500 3380298.000000 19.961485
547610.187500 3380296.500000 19.398365
547616.312500 3380295.500000 19.435253
547620.250000 3380295.250000 19.964073
547623.125000 3380294.250000 19.991049
547628.250000 3380294.000000 20.253181
547631.937500 3380293.750000 20.006516
547634.562500 3380293.500000 19.868994
547637.750000 3380293.000000 20.880424
547643.312500 3380291.750000 22.870544
547656.812500 3380293.750000 19.811729
547668.937500 3380292.500000 20.123446
547671.687500 3380292.250000 19.471037
547674.875000 3380292.000000 20.087431
547681.312500 3380291.500000 19.712507
547683.750000 3380290.750000 19.309578
547696.687500 3380289.500000 19.649120
547706.125000 3380288.000000 18.990322
547708.500000 3380287.500000 19.590588
547709.625000 3380285.500000 25.526545
547715.250000 3380287.250000 19.172930
547717.812500 3380288.500000 19.923038
547720.312500 3380287.000000 19.845070
547723.812500 3380288.000000 20.050222
547726.250000 3380286.000000 20.216368
547730.375000 3380285.750000 19.729240
547736.750000 3380287.000000 19.391281
547738.750000 3380285.250000 19.476799
547751.125000 3380284.750000 19.618227
547761.437500 3380284.750000 19.575445
547763.062500 3380283.250000 19.957706
547770.125000 3380282.750000 19.724688
547779.000000 3380283.500000 19.833046
547785.250000 3380281.750000 19.060112
547788.062500 3380283.250000 19.126053
547792.250000 3380281.500000 19.450775
547800.437500 3380280.500000 19.412077
547804.187500 3380282.250000 19.101933
547153.812500 3380337.000000 19.370470
547156.375000 3380334.750000 19.463419
547159.250000 3380336.250000 19.481438
547165.125000 3380334.000000 19.607189
547174.250000 3380334.000000 19.654861
547181.250000 3380333.250000 19.043657
547184.875000 3380334.000000 20.105906
547187.562500 3380334.500000 19.255117
547190.437500 3380334.000000 19.172401
547194.375000 3380332.500000 19.254608
547196.187500 3380332.000000 19.280640
547200.562500 3380333.250000 19.357561
547202.312500 3380331.250000 19.472673
547205.187500 3380331.500000 19.928244
547208.062500 3380331.500000 18.910297
547214.937500 3380332.000000 19.500744
547218.312500 3380332.000000 19.304411
547227.812500 3380329.750000 19.362196
547232.687500 3380329.500000 19.197733
547235.812500 3380329.250000 18.999065
547245.000000 3380328.500000 19.314791
547263.000000 3380328.250000 19.223660
547266.562500 3380327.250000 19.155540
547271.125000 3380326.000000 19.151449
547272.687500 3380325.750000 19.232857
547279.687500 3380326.500000 20.518541
547289.250000 3380325.000000 19.331078
547291.187500 3380325.250000 19.170429
547294.500000 3380323.500000 19.520782
547312.687500 3380323.000000 19.080334
547315.750000 3380322.500000 18.870619
547320.250000 3380322.500000 19.210436
547321.875000 3380321.750000 19.195591
547331.562500 3380321.250000 18.984907
547334.625000 3380321.000000 19.032478
547338.187500 3380322.250000 19.045448
547341.625000 3380322.000000 19.041977
547341.812500 3380299.750000 77.837128
547349.875000 3380319.250000 20.021101
547356.187500 3380320.250000 21.069288
547359.187500 3380320.250000 20.166309
547363.750000 3380320.250000 19.328949
547366.375000 3380320.000000 19.642563
547372.437500 3380319.500000 19.742985
547377.687500 3380318.500000 21.187525
547380.750000 3380317.250000 18.580441
547383.625000 3380318.750000 18.083576
547392.562500 3380316.500000 19.195383
547396.500000 3380317.500000 19.643923
547402.062500 3380316.500000 19.513803
547407.937500 3380315.250000 19.410154
547414.937500 3380314.500000 19.171083
547417.625000 3380315.000000 19.733492
547424.875000 3380314.750000 19.702059
547430.062500 3380314.250000 20.539995
547439.062500 3380312.500000 19.183317
547450.875000 3380311.500000 19.495914
547456.937500 3380311.250000 19.831633
547463.750000 3380309.250000 23.329166
547466.187500 3380310.250000 20.202141
547475.437500 3380310.000000 19.369793
547479.500000 3380311.000000 19.448458
547482.875000 3380309.750000 19.412338
547484.687500 3380308.750000 19.180761
547488.312500 3380310.000000 19.039568
547491.250000 3380308.250000 19.089497
547493.875000 3380309.000000 19.387188
547503.937500 3380307.250000 19.166250
547507.000000 3380307.000000 19.210333
547509.187500 3380306.750000 19.200335
547515.375000 3380306.750000 19.246841
547518.500000 3380306.500000 19.302759
547527.937500 3380306.750000 19.414867
547536.937500 3380305.750000 18.873886
547539.625000 3380304.000000 20.402250
547542.250000 3380303.000000 22.298992
547545.375000 3380303.250000 22.288567
547558.750000 3380304.500000 18.970503
547562.625000 3380304.500000 18.690958
547564.562500 3380303.500000 18.783865
547570.375000 3380302.250000 20.408478
547573.687500 3380300.500000 22.664398
547576.437500 3380299.500000 27.685547
547578.625000 3380299.250000 25.375761
547582.625000 3380301.000000 19.780422
547585.937500 3380302.000000 20.596764
547589.437500 3380301.750000 20.248871
547592.375000 3380300.250000 19.368917
547595.937500 3380301.500000 19.705925
547598.000000 3380299.750000 20.034599
547604.125000 3380299.000000 19.744478
547608.125000 3380298.750000 19.530745
547613.375000 3380298.750000 19.644360
547628.687500 3380297.500000 19.640554
547634.812500 3380296.500000 19.952168
547642.875000 3380295.000000 23.535295
547646.875000 3380294.750000 21.013239
547657.125000 3380296.500000 19.855173
547659.375000 3380296.000000 20.452648
547664.062500 3380295.750000 19.688463
547665.375000 3380295.000000 19.915043
547672.000000 3380295.000000 20.159029
547681.625000 3380293.000000 19.528601
547683.812500 3380293.000000 19.562149
547690.250000 3380292.000000 19.869621
547694.625000 3380292.500000 19.840237
547702.625000 3380291.250000 19.513193
547708.375000 3380290.750000 19.389027
547711.875000 3380290.500000 19.315336
547719.062500 3380291.000000 20.106215
547721.312500 3380289.500000 19.895868
547723.437500 3380289.750000 20.057131
547726.687500 3380289.750000 19.596430
547737.562500 3380290.000000 19.212065
547739.562500 3380289.000000 19.124716
547742.437500 3380288.000000 19.395557
547747.937500 3380287.500000 19.916172
547751.125000 3380287.250000 19.669281
547754.125000 3380287.000000 19.727293
547769.375000 3380285.750000 19.939953
547778.500000 3380285.000000 20.005684
547783.625000 3380286.250000 19.567154
547785.437500 3380286.250000 19.673647
547791.187500 3380285.250000 18.966400
547794.187500 3380285.000000 19.134211
547801.625000 3380284.000000 19.301868
547803.375000 3380283.750000 19.004795
547106.250000 3380316.000000 91.974976
547136.687500 3380316.250000 87.000870
547145.625000 3380269.250000 214.456833
547150.000000 3380339.000000 19.840591
547155.937500 3380338.250000 19.374134
547159.437500 3380339.250000 19.647926
547165.125000 3380337.750000 20.068636
547174.875000 3380336.500000 19.662310
547187.937500 3380337.250000 19.298872
547190.687500 3380337.000000 19.225754
547192.937500 3380335.750000 19.203590
547197.375000 3380335.250000 19.391258
547199.062500 3380334.500000 19.486382
547203.875000 3380336.000000 19.288527
547214.500000 3380333.750000 19.536318
547217.937500 3380333.250000 19.338524
547230.062500 3380334.000000 19.307196
547239.937500 3380331.250000 19.443911
547243.000000 3380331.250000 19.301958
547257.875000 3380331.500000 19.569731
547266.750000 3380329.250000 19.216679
547269.812500 3380329.000000 19.104870
547274.312500 3380330.250000 19.784330
547279.062500 3380328.750000 19.371035
547294.437500 3380327.500000 19.135017
547299.375000 3380328.750000 18.937325
547301.000000 3380328.500000 19.031359
547313.750000 3380325.500000 19.146231
547319.062500 3380325.250000 18.985386
547325.625000 3380324.750000 19.079731
547328.312500 3380325.250000 18.908026
547331.312500 3380324.250000 18.922768
547338.312500 3380325.250000 19.063835
547341.750000 3380324.000000 18.946024
547344.062500 3380323.000000 19.201387
547349.875000 3380323.750000 20.255400
547352.812500 3380322.500000 20.032312
547356.187500 3380321.500000 20.681814
547359.750000 3380321.500000 20.065941
547366.687500 3380322.500000 20.102293
547365.375000 3380280.500000 134.850266
547398.937500 3380319.500000 19.612061
547402.312500 3380318.250000 19.801043
547405.062500 3380319.000000 19.462097
547414.250000 3380317.500000 19.091496
547417.375000 3380317.750000 19.103954
547424.125000 3380318.250000 19.452038
547428.187500 3380318.000000 19.455370
547429.500000 3380316.000000 19.801262
547432.625000 3380316.250000 19.758997
547435.875000 3380316.000000 19.948135
547445.000000 3380316.000000 19.200363
547449.312500 3380315.000000 20.075136
547451.000000 3380314.250000 19.816828
547455.187500 3380315.250000 20.302988
547457.562500 3380313.750000 20.083279
547460.062500 3380313.250000 20.946569
547462.937500 3380312.500000 21.933035
547467.000000 3380315.000000 19.440315
547473.437500 3380314.000000 19.703867
547476.562500 3380312.500000 19.214058
547479.125000 3380312.250000 19.467077
547481.750000 3380312.000000 19.576429
547488.812500 3380311.500000 19.074234
547497.250000 3380311.500000 19.156176
547506.437500 3380311.000000 19.143826
547515.562500 3380309.500000 19.147299
547525.875000 3380309.250000 19.295961
547528.312500 3380308.500000 18.930222
547534.812500 3380307.750000 19.174374
547543.750000 3380307.750000 21.122513
547546.312500 3380307.500000 22.340195
547549.625000 3380307.750000 20.971775
547552.312500 3380307.250000 19.565649
547556.437500 3380307.750000 19.309286
547561.562500 3380305.750000 19.161612
547573.437500 3380303.750000 23.677677
547575.937500 3380303.750000 23.450020
547578.937500 3380303.500000 23.625082
547583.250000 3380303.750000 19.954704
547589.062500 3380305.000000 20.042009
547593.250000 3380304.500000 20.167994
547595.687500 3380304.500000 19.856260
547599.687500 3380304.250000 19.726204
547605.437500 3380303.500000 19.783213
547617.375000 3380302.750000 19.959444
547622.750000 3380301.250000 19.837141
547626.437500 3380302.000000 19.968922
547633.125000 3380301.500000 19.654425
547635.062500 3380300.500000 19.626753
547640.937500 3380299.000000 20.250240
547643.812500 3380299.000000 19.986177
547651.125000 3380300.250000 19.688026
547653.375000 3380298.500000 19.682648
547659.812500 3380297.750000 20.260662
547672.062500 3380296.500000 19.926682
547684.375000 3380295.500000 19.766291
547686.875000 3380295.500000 20.173267
547691.562500 3380296.000000 19.496199
547696.000000 3380295.250000 20.514900
547699.937500 3380294.250000 20.337145
547708.437500 3380294.250000 19.784719
547716.062500 3380293.500000 19.590706
547718.937500 3380294.250000 20.353510
547720.625000 3380293.000000 19.980436
547726.875000 3380293.000000 19.674355
547732.812500 3380292.250000 20.335592
547739.250000 3380292.250000 19.236368
547749.187500 3380291.000000 19.948151
547752.687500 3380292.250000 19.561220
547754.875000 3380290.000000 19.476254
547758.250000 3380291.750000 19.034090
547761.500000 3380289.750000 19.232033
547763.625000 3380290.250000 19.543724
547766.750000 3380290.000000 19.430117
547778.687500 3380288.500000 20.013538
547781.937500 3380288.250000 19.642353
547784.937500 3380288.000000 19.760159
547787.812500 3380289.000000 19.882065
547791.687500 3380287.750000 19.619619
547794.500000 3380288.750000 19.211540
547803.562500 3380286.750000 19.100384
547138.125000 3380344.250000 19.748734
547146.875000 3380342.500000 19.479445
547150.500000 3380341.500000 19.899597
547157.125000 3380343.000000 18.973965
547160.500000 3380341.500000 19.497747
547187.187500 3380340.250000 19.315531
547194.625000 3380339.000000 19.360693
547213.125000 3380337.500000 19.610899
547218.625000 3380336.000000 19.488848
547228.187500 3380337.250000 19.531635
547230.062500 3380335.250000 19.166372
547237.500000 3380336.250000 19.597668
547239.375000 3380335.250000 19.326935
547243.437500 3380336.000000 19.292212
547245.437500 3380334.000000 19.255377
547255.250000 3380334.250000 18.979095
547257.812500 3380334.000000 19.102606
547261.250000 3380332.750000 19.559361
547267.875000 3380332.250000 18.994144
547276.187500 3380331.500000 19.097023
547279.375000 3380332.250000 19.213860
547288.500000 3380330.750000 18.794878
547291.625000 3380331.250000 19.021666
547301.687500 3380329.500000 19.185415
547316.937500 3380330.250000 19.161467
547331.625000 3380328.000000 18.926662
547341.562500 3380328.250000 19.022404
547347.625000 3380327.750000 19.280693
547350.000000 3380325.750000 19.033978
547354.250000 3380326.250000 19.374784
547356.500000 3380326.500000 19.814606
547359.500000 3380324.500000 20.361788
547363.000000 3380325.750000 20.090246
547365.750000 3380325.750000 20.384558
547369.937500 3380325.750000 19.503588
547372.250000 3380325.750000 19.589838
547377.500000 3380321.750000 25.042149
547380.187500 3380322.000000 28.038822
547393.562500 3380324.000000 19.570955
547396.062500 3380322.250000 19.561481
547399.500000 3380321.500000 19.925140
547404.187500 3380321.750000 19.757582
547408.375000 3380321.250000 19.367456
547411.812500 3380320.750000 19.231548
547421.125000 3380321.750000 19.378117
547427.875000 3380321.250000 19.118507
547433.375000 3380320.500000 19.684013
547442.062500 3380318.500000 19.813072
547445.125000 3380318.000000 19.551474
547449.000000 3380317.500000 20.111837
547451.062500 3380317.250000 21.220407
547454.312500 3380318.250000 21.629044
547457.375000 3380317.250000 22.729458
547463.437500 3380317.000000 20.638754
547466.812500 3380318.250000 19.259937
547469.687500 3380316.000000 19.360651
547474.125000 3380317.500000 19.403532
547485.562500 3380314.750000 19.082407
547491.250000 3380315.250000 19.207682
547495.187500 3380315.000000 19.084930
547497.625000 3380315.750000 19.225454
547503.687500 3380315.250000 19.188221
547507.000000 3380313.000000 19.157312
547519.062500 3380314.000000 19.067583
547528.125000 3380311.500000 18.747999
547535.687500 3380312.750000 18.903913
547537.312500 3380311.250000 19.014141
547543.062500 3380309.750000 20.561861
547549.250000 3380310.250000 22.605991
547553.062500 3380309.500000 18.848719
547559.187500 3380309.000000 18.824636
547564.812500 3380308.500000 19.218962
547570.000000 3380307.250000 23.471785
547572.937500 3380306.500000 23.730097
547580.312500 3380308.500000 20.720230
547590.312500 3380307.750000 20.549147
547592.937500 3380307.000000 21.479078
547598.312500 3380306.250000 20.338638
547601.875000 3380306.750000 20.541950
547608.000000 3380305.250000 19.794821
547611.375000 3380306.250000 19.886490
547619.937500 3380304.750000 19.663935
547626.375000 3380303.250000 19.911739
547630.562500 3380304.750000 19.906567
547632.687500 3380303.500000 19.984400
547638.312500 3380303.250000 19.519733
547641.375000 3380302.500000 19.518642
547644.375000 3380302.000000 19.950491
547650.687500 3380302.250000 19.659164
547657.187500 3380302.500000 20.083126
547660.312500 3380302.250000 20.091499
547672.375000 3380301.250000 19.793907
547674.937500 3380299.250000 19.843634
547679.062500 3380300.750000 19.808092
547687.562500 3380298.250000 19.881132
547693.562500 3380299.500000 20.206657
547706.062500 3380297.250000 20.152384
547711.625000 3380296.750000 19.941256
547730.062500 3380295.500000 19.738981
547733.187500 3380295.750000 19.618164
547740.187500 3380294.250000 19.431629
547745.312500 3380294.250000 19.845985
547756.125000 3380294.000000 19.185835
547758.000000 3380294.750000 19.387348
547767.312500 3380293.000000 19.711630
547779.187500 3380291.750000 19.282393
547785.187500 3380291.500000 19.573126
547794.500000 3380290.500000 19.188818
547798.937500 3380291.500000 18.819214
547804.062500 3380289.500000 19.231695
547136.187500 3380347.750000 19.253380
547146.937500 3380344.750000 19.437836
547157.062500 3380346.000000 18.845642
547185.375000 3380344.000000 19.098156
547187.687500 3380341.750000 19.074987
547194.250000 3380341.500000 19.322695
547197.000000 3380342.750000 19.246407
547200.000000 3380340.750000 19.391756
547202.687500 3380341.250000 19.462860
547206.750000 3380340.500000 19.358280
547210.062500 3380341.750000 19.543123
547212.187500 3380341.000000 19.670412
547215.375000 3380339.500000 19.451204
547218.875000 3380339.250000 19.342426
547224.625000 3380339.250000 19.481668
547228.125000 3380338.500000 19.373796
547237.312500 3380339.500000 19.313585
547243.812500 3380338.250000 19.091845
547251.812500 3380336.750000 19.003021
547256.125000 3380336.000000 19.210463
547261.687500 3380337.750000 19.149710
547273.437500 3380335.750000 19.027304
547280.250000 3380335.250000 19.251543
547294.937500 3380333.750000 18.979937
547301.062500 3380332.750000 19.091413
547304.437500 3380334.250000 19.522905
547317.937500 3380331.750000 19.053719
547319.562500 3380332.000000 18.973278
547325.687500 3380331.500000 19.078682
547341.875000 3380329.500000 19.034920
547345.000000 3380331.250000 18.997181
547347.125000 3380329.000000 19.079029
547350.750000 3380328.750000 19.072523
547357.625000 3380329.500000 19.443972
547359.750000 3380327.500000 20.195019
547362.812500 3380328.250000 20.793293
547365.625000 3380327.750000 19.920212
547380.875000 3380326.750000 20.116791
547384.250000 3380326.750000 21.315971
547387.937500 3380327.250000 19.464327
547390.562500 3380325.500000 19.129789
547396.250000 3380325.500000 19.792744
547410.125000 3380325.500000 19.665602
547419.062500 3380325.000000 19.350714
547421.375000 3380324.500000 19.271286
547424.812500 3380322.750000 19.203949
547434.625000 3380323.500000 19.492125
547436.750000 3380323.500000 19.862255
547443.375000 3380322.750000 19.913004
547445.375000 3380321.250000 19.609343
547449.687500 3380322.000000 20.574965
547451.250000 3380320.250000 21.354240
547457.250000 3380319.000000 22.679050
547464.687500 3380321.250000 19.382040
547467.187500 3380321.250000 19.364727
547473.437500 3380318.750000 19.354277
547480.375000 3380320.000000 19.389225
547486.937500 3380318.500000 19.347010
547489.187500 3380317.500000 19.343143
547498.125000 3380318.750000 19.260357
547506.750000 3380316.250000 19.099037
547509.812500 3380316.000000 19.124178
547525.187500 3380314.750000 19.115488
547528.250000 3380314.500000 19.179680
547534.500000 3380315.000000 18.900339
547538.500000 3380315.500000 19.193672
547541.312500 3380314.750000 20.183748
547549.562500 3380312.750000 22.184662
547566.125000 3380312.750000 20.361860
547567.187500 3380309.750000 22.930586
547571.125000 3380309.500000 23.009010
547573.312500 3380310.250000 23.303217
547580.437500 3380309.500000 20.515987
547584.062500 3380309.250000 20.257469
547554.437500 3380260.500000 164.409027
547594.750000 3380307.750000 23.332142
547605.000000 3380309.500000 20.916931
547611.125000 3380308.000000 19.881365
547613.875000 3380308.750000 20.790537
547620.562500 3380308.750000 19.987583
547623.187500 3380306.750000 19.696169
547629.250000 3380306.500000 19.834661
547633.187500 3380307.500000 19.850208
547635.687500 3380307.500000 19.982920
547650.750000 3380305.000000 19.765287
547660.437500 3380303.500000 20.506020
547672.000000 3380302.500000 20.073706
547681.875000 3380303.750000 19.725941
547687.500000 3380302.250000 19.628887
547696.937500 3380300.500000 19.921137
547714.875000 3380300.000000 20.054821
547730.312500 3380298.500000 19.522835
547733.312500 3380298.250000 19.651548
547740.437500 3380297.250000 19.259714
547748.937500 3380296.500000 19.924673
547751.687500 3380296.500000 19.524847
547755.250000 3380296.250000 19.321091
547758.312500 3380295.750000 19.478346
547770.125000 3380295.000000 19.376423
547788.937500 3380293.500000 19.318501
547795.875000 3380294.750000 19.102602
547798.000000 3380294.750000 18.846928
547801.062500 3380293.250000 18.542908
547805.437500 3380292.500000 19.353380
547142.062500 3380349.250000 20.594690
547144.437500 3380349.000000 19.317936
547151.625000 3380347.250000 19.344934
547175.000000 3380258.250000 265.773529
547175.312500 3380346.250000 19.672401
547184.625000 3380346.250000 19.041351
547193.750000 3380345.750000 19.348396
547196.687500 3380344.000000 19.252480
547200.937500 3380345.250000 19.775986
547209.875000 3380343.000000 19.230232
547213.500000 3380342.500000 19.645899
547217.062500 3380343.250000 19.591429
547218.312500 3380343.000000 19.399750
547221.312500 3380342.000000 19.277599
547230.562500 3380341.750000 19.060110
547234.062500 3380341.000000 19.516081
547237.125000 3380340.750000 19.298340
547242.937500 3380342.000000 19.152338
547247.500000 3380340.750000 19.420889
547249.062500 3380340.750000 19.327015
547271.375000 3380338.000000 19.071892
547273.687500 3380338.750000 19.004494
547277.312500 3380338.500000 19.134136
547282.812500 3380337.250000 19.038498
547307.250000 3380337.000000 19.440920
547313.625000 3380335.250000 18.964334
547320.625000 3380334.250000 18.844553
547326.750000 3380333.750000 19.068302
547328.937500 3380334.000000 19.014849
547336.875000 3380334.750000 19.026901
547338.625000 3380332.750000 18.914547
547342.125000 3380332.500000 18.996744
547353.562500 3380332.000000 19.067593
547357.812500 3380333.000000 19.210913
547359.812500 3380330.250000 19.600685
547366.937500 3380331.750000 20.225939
547369.125000 3380332.000000 19.658535
547372.187500 3380331.750000 19.425941
547378.875000 3380329.250000 19.792187
547381.062500 3380329.500000 20.553892
547383.875000 3380327.750000 22.407696
547387.687500 3380329.500000 21.558702
547396.875000 3380327.750000 19.793692
547405.812500 3380327.250000 19.635967
547419.125000 3380327.250000 19.265285
547431.125000 3380325.250000 19.397104
547433.750000 3380325.000000 19.867609
547441.312500 3380326.000000 19.581446
547445.562500 3380324.000000 19.527382
547448.500000 3380323.500000 20.349707
547451.312500 3380324.250000 22.274353
547455.000000 3380321.750000 23.527018
547457.812500 3380322.000000 22.203272
547471.062500 3380322.000000 19.161285
547473.562500 3380322.500000 19.279034
547476.312500 3380322.000000 19.195646
547479.312500 3380321.250000 19.399069
547489.312500 3380321.500000 19.258270
547495.250000 3380320.250000 19.629910
547498.687500 3380320.000000 19.365049
547507.125000 3380320.750000 19.213713
547513.187500 3380319.500000 19.134111
547519.312500 3380319.000000 19.034290
547528.875000 3380317.500000 19.126303
547538.562500 3380316.750000 19.078560
547541.000000 3380316.250000 19.852606
547546.437500 3380317.250000 20.594845
547550.062500 3380315.250000 20.415754
547560.000000 3380315.000000 18.931526
547565.062500 3380314.750000 19.891048
547568.937500 3380315.000000 21.385723
547573.562500 3380313.250000 23.013897
547583.875000 3380312.750000 19.989601
547586.375000 3380312.250000 25.341297
547588.375000 3380310.250000 25.908407
547598.437500 3380310.500000 22.803185
547601.875000 3380310.750000 21.297970
547604.562500 3380312.000000 22.362175
547607.875000 3380309.750000 23.289236
547610.312500 3380309.750000 22.944540
547620.500000 3380311.500000 20.406788
547623.437500 3380309.500000 19.777805
547626.687500 3380309.750000 19.846863
547629.500000 3380309.250000 19.521826
547635.812500 3380310.500000 19.567354
547638.937500 3380308.250000 20.005098
547644.875000 3380308.000000 19.262814
547648.125000 3380307.500000 20.025776
547651.250000 3380307.250000 19.869234
547655.562500 3380308.750000 20.004234
547656.875000 3380306.750000 19.986467
547670.312500 3380307.750000 19.564631
547675.500000 3380307.250000 19.650684
547678.812500 3380305.000000 19.908226
547687.562500 3380304.750000 19.969538
547690.812500 3380306.000000 19.564445
547695.062500 3380305.500000 20.100086
547696.625000 3380304.500000 20.278666
547700.250000 3380303.500000 19.817017
547702.875000 3380303.250000 19.745567
547715.500000 3380301.500000 20.415104
547721.187500 3380302.250000 19.909101
547727.250000 3380301.250000 19.951109
547730.437500 3380301.000000 19.681782
547737.125000 3380300.750000 19.250977
547740.937500 3380302.000000 20.002138
547745.812500 3380299.750000 19.468742
547749.312500 3380299.500000 19.461035
547768.375000 3380299.000000 20.802032
547773.687500 3380297.500000 19.739428
547776.687500 3380297.250000 20.010355
547779.375000 3380297.500000 19.744375
547782.562500 3380297.000000 19.252300
547788.812500 3380297.000000 19.061712
547798.000000 3380295.750000 19.605551
547802.687500 3380296.000000 19.526224
547804.062500 3380295.500000 19.035414
547133.312500 3380281.750000 211.291153
547138.875000 3380280.500000 218.348404
547145.812500 3380352.750000 19.727884
547149.250000 3380352.000000 19.304472
547160.500000 3380350.250000 18.695137
547170.062500 3380350.750000 19.811840
547172.375000 3380349.750000 19.317059
547194.750000 3380347.250000 19.406780
547196.937500 3380347.000000 19.382683
547201.187500 3380347.750000 19.543987
547204.000000 3380346.500000 19.437569
547206.937500 3380348.000000 19.216665
547215.812500 3380345.500000 19.356756
547218.937500 3380345.250000 19.310686
547221.625000 3380346.000000 19.124659
547224.687500 3380345.750000 19.293501
547227.687500 3380344.500000 19.267687
547231.750000 3380344.500000 19.275541
547234.312500 3380344.000000 19.604774
547238.812500 3380344.250000 19.516684
547240.062500 3380344.500000 19.451143
547243.062500 3380343.500000 19.013456
547271.312500 3380340.750000 19.382378
547280.437500 3380342.250000 19.309874
547284.625000 3380341.500000 19.081242
547307.750000 3380338.250000 19.329357
547313.812500 3380338.250000 19.124084
547318.500000 3380339.000000 19.003284
547323.937500 3380338.750000 19.075323
547327.312500 3380337.250000 19.078653
547329.187500 3380337.250000 19.076740
547332.312500 3380337.250000 18.977571
547335.562500 3380337.500000 19.036486
547338.125000 3380336.000000 19.113239
547341.500000 3380336.000000 18.942585
547345.375000 3380335.250000 18.921301
547349.062500 3380336.750000 19.162474
547363.750000 3380333.500000 19.848867
547370.625000 3380334.250000 20.189024
547372.187500 3380333.250000 19.364048
547375.187500 3380333.000000 19.426918
547384.250000 3380331.750000 25.395489
547390.500000 3380331.750000 19.877573
547394.125000 3380333.000000 19.680542
547403.687500 3380332.250000 19.766413
547405.937500 3380330.750000 19.284912
547410.562500 3380330.500000 19.195665
547418.250000 3380329.750000 19.280725
547421.687500 3380329.000000 19.245819
547425.875000 3380329.250000 19.472401
547427.937500 3380330.000000 20.025349
547436.687500 3380329.250000 19.569889
547440.062500 3380327.500000 19.521038
547443.187500 3380327.250000 19.371300
547446.562500 3380328.000000 21.234154
547449.000000 3380326.000000 21.287952
547452.687500 3380325.250000 23.832970
547454.000000 3380324.500000 24.917721
547459.250000 3380327.750000 19.063213
547461.187500 3380326.000000 19.063059
547477.375000 3380324.500000 19.254726
547486.125000 3380323.750000 19.252638
547505.000000 3380322.250000 19.141422
547525.625000 3380320.750000 18.870657
547536.812500 3380320.500000 19.351295
547537.875000 3380320.250000 19.091469
547544.687500 3380319.000000 19.932287
547562.437500 3380318.500000 19.192734
547566.000000 3380319.000000 20.394283
547569.500000 3380317.000000 20.813974
547571.062500 3380316.750000 21.313084
547573.812500 3380316.000000 22.740019
547591.937500 3380312.500000 27.018421
547596.312500 3380314.750000 20.054747
547603.187500 3380315.250000 21.653107
547604.750000 3380314.750000 22.857342
547607.750000 3380314.500000 23.126802
547610.312500 3380312.750000 23.585922
547613.687500 3380313.750000 23.172522
547617.312500 3380313.000000 20.700953
547624.250000 3380314.250000 19.719692
547627.000000 3380312.250000 19.706020
547629.375000 3380312.500000 19.623125
547636.250000 3380313.500000 19.554533
547587.625000 3380249.000000 203.063446
547643.000000 3380309.250000 26.562271
547655.000000 3380312.000000 19.647364
547657.750000 3380311.500000 20.244205
547667.250000 3380309.250000 19.599855
547672.937500 3380308.750000 19.648474
547676.437500 3380308.500000 19.697165
547681.750000 3380308.750000 19.636703
547684.687500 3380307.750000 19.857738
547687.750000 3380307.750000 19.948006
547690.937500 3380307.250000 19.480938
547694.500000 3380307.500000 19.762224
547697.750000 3380306.500000 19.994377
547699.937500 3380306.750000 20.128036
547707.562500 3380307.750000 19.520432
547715.375000 3380306.000000 19.730062
547718.437500 3380305.000000 19.597548
547721.875000 3380304.750000 19.767988
547724.875000 3380304.500000 19.888247
547728.375000 3380304.250000 19.866093
547737.312500 3380303.500000 19.571226
547750.437500 3380304.250000 20.011366
547752.750000 3380302.000000 20.137598
547755.437500 3380302.000000 20.287899
547764.187500 3380301.250000 19.820028
547767.687500 3380301.000000 19.823256
547773.562500 3380301.500000 19.518900
547782.625000 3380300.000000 19.645916
547785.812500 3380300.500000 19.461578
547792.500000 3380299.500000 18.886959
547795.750000 3380300.750000 19.289284
547801.812500 3380300.250000 19.446917
547102.125000 3380346.000000 52.536861
547148.375000 3380354.000000 19.193850
547154.187500 3380353.750000 19.794872
547158.937500 3380354.750000 19.410936
547161.437500 3380354.500000 19.224861
547173.375000 3380354.000000 19.155252
547176.250000 3380352.250000 19.434616
547178.687500 3380351.750000 19.276403
547188.375000 3380351.000000 18.973446
547195.312500 3380350.750000 19.615063
547198.625000 3380350.500000 19.651300
547200.312500 3380350.500000 19.433910
547203.375000 3380350.250000 19.460039
547206.375000 3380349.250000 19.162039
547212.562500 3380348.750000 19.196299
547217.125000 3380350.250000 19.140329
547219.125000 3380348.250000 19.237900
547221.812500 3380348.000000 19.220615
547224.937500 3380348.750000 19.221462
547232.375000 3380348.750000 19.388519
547234.062500 3380347.000000 19.307728
547238.062500 3380346.750000 19.267694
547246.812500 3380346.000000 19.142830
547252.562500 3380345.750000 19.079979
547261.500000 3380345.250000 19.512676
547274.062500 3380344.000000 18.636221
547284.187500 3380343.250000 19.115475
547287.812500 3380344.750000 19.045109
547292.562500 3380343.000000 19.030428
547304.812500 3380341.500000 18.887873
547308.937500 3380342.750000 19.127817
547312.125000 3380342.500000 19.093325
547317.625000 3380342.250000 19.134094
547326.375000 3380340.750000 19.043438
547329.375000 3380339.500000 19.006737
547357.437500 3380337.250000 19.071398
547360.125000 3380337.000000 18.888750
547364.375000 3380337.500000 19.484503
547367.062500 3380338.000000 19.905584
547369.250000 3380336.750000 20.045376
547372.312500 3380336.250000 19.912588
547365.250000 3380280.750000 173.547592
547385.812500 3380333.500000 25.068146
547403.250000 3380335.250000 19.679937
547410.625000 3380334.500000 19.440395
547413.000000 3380333.750000 19.221170
547415.375000 3380333.000000 19.051476
547418.812500 3380332.250000 19.631201
547424.562500 3380332.500000 19.656775
547428.312500 3380333.250000 19.713121
547438.437500 3380331.750000 19.897093
547440.250000 3380331.250000 19.775328
547443.250000 3380330.000000 20.121077
547445.750000 3380329.750000 21.089680
547449.625000 3380329.000000 22.521612
547452.125000 3380330.750000 21.215611
547464.500000 3380329.500000 19.115835
547467.937500 3380328.750000 19.410257
547473.687500 3380328.750000 19.309786
547476.500000 3380327.750000 19.195414
547480.625000 3380327.250000 19.496292
547489.437500 3380326.750000 19.176418
547492.500000 3380326.500000 19.175095
547504.375000 3380326.250000 19.102619
547510.500000 3380325.000000 19.054993
547514.312500 3380326.250000 19.182631
547520.125000 3380324.250000 19.079489
547526.500000 3380325.250000 19.146914
547528.875000 3380323.500000 19.049215
547532.312500 3380323.000000 19.459023
547535.812500 3380322.750000 19.406269
547541.062500 3380322.500000 19.318218
547544.250000 3380323.000000 20.730238
547560.375000 3380321.000000 19.204472
547563.875000 3380322.000000 19.728113
547566.875000 3380322.000000 19.927139
547569.437500 3380321.750000 20.344790
547581.375000 3380320.750000 20.121603
547583.812500 3380319.500000 20.219921
547587.437500 3380319.000000 20.127583
547589.625000 3380318.750000 20.041401
547594.562500 3380319.750000 19.783987
547596.250000 3380319.500000 20.172676
547602.250000 3380318.000000 20.031437
547611.500000 3380317.500000 21.564470
547615.000000 3380315.750000 21.050520
547628.187500 3380315.750000 20.248161
547630.500000 3380315.500000 23.059813
547634.125000 3380315.000000 19.992584
547637.062500 3380314.750000 21.540071
547640.812500 3380313.000000 24.299835
547643.062500 3380312.000000 26.983797
547654.875000 3380313.250000 19.956215
547657.562500 3380313.750000 21.506687
547665.062500 3380314.000000 19.995331
547666.875000 3380313.000000 19.878752
547674.187500 3380313.250000 19.865175
547681.875000 3380311.500000 19.684023
547684.875000 3380310.750000 19.828571
547688.375000 3380310.500000 19.816513
547691.812500 3380310.000000 19.887304
547694.125000 3380310.750000 19.786562
547698.125000 3380311.500000 19.794996
547704.062500 3380309.000000 19.903269
547707.250000 3380309.000000 19.595345
547709.437500 3380309.750000 19.606689
547712.937500 3380308.500000 19.541540
547727.812500 3380308.250000 19.574270
547732.000000 3380308.750000 19.141056
547734.000000 3380307.750000 19.458858
547743.375000 3380307.750000 19.811747
547747.375000 3380307.250000 20.339779
547753.312500 3380307.250000 19.638088
547756.250000 3380306.750000 20.063578
547764.750000 3380304.250000 20.019768
547780.437500 3380305.000000 19.343012
547786.812500 3380304.000000 19.839235
547789.437500 3380302.500000 19.446445
547792.750000 3380303.750000 19.839642
547796.812500 3380303.750000 19.369865
547798.375000 3380302.750000 19.002388
547096.500000 3380344.000000 63.605778
547098.625000 3380351.500000 47.528137
547149.875000 3380358.750000 19.434433
547154.812500 3380356.500000 19.352386
547157.875000 3380356.250000 19.357748
547164.000000 3380355.750000 19.489849
547167.562500 3380355.500000 19.460039
547173.375000 3380355.000000 19.236351
547186.625000 3380355.500000 19.243423
547192.437500 3380353.750000 19.545258
547194.312500 3380353.250000 19.259027
547200.500000 3380352.750000 19.404987
547211.437500 3380352.750000 19.446690
547212.812500 3380352.000000 19.141220
547217.125000 3380351.750000 19.340815
547220.375000 3380353.000000 19.127800
547225.125000 3380350.750000 19.339956
547232.125000 3380350.250000 19.324360
547234.375000 3380350.500000 19.261364
547247.062500 3380349.250000 19.024319
547250.562500 3380348.750000 19.240328
547252.937500 3380350.500000 19.203531
547257.062500 3380350.250000 19.172054
547262.500000 3380349.750000 19.207949
547283.937500 3380346.250000 19.197866
547290.375000 3380346.500000 18.918755
547293.187500 3380345.500000 19.010548
547295.812500 3380345.750000 18.983133
547302.625000 3380344.250000 19.317577
547305.750000 3380346.000000 19.389433
547308.187500 3380345.250000 18.836605
547312.000000 3380345.750000 19.242315
547324.312500 3380342.750000 19.316805
547326.562500 3380343.250000 19.099176
547330.062500 3380342.500000 18.978390
547333.562500 3380342.250000 19.180851
547335.750000 3380342.000000 19.047237
547338.875000 3380342.750000 19.022226
547342.312500 3380341.500000 19.139673
547348.625000 3380341.250000 19.338310
547351.187500 3380341.750000 19.064320
547355.625000 3380341.000000 19.058002
547357.250000 3380340.250000 18.999664
547363.437500 3380340.750000 19.194944
547369.875000 3380339.000000 19.933638
547373.812500 3380340.500000 20.283617
547380.187500 3380340.250000 19.543917
547387.000000 3380334.750000 27.574966
547395.250000 3380339.000000 19.483509
547400.625000 3380338.500000 19.641541
547403.625000 3380337.000000 19.823156
547408.125000 3380336.750000 19.760496
547410.312500 3380336.000000 19.351526
547419.875000 3380337.000000 19.380535
547426.250000 3380336.250000 19.399675
547429.000000 3380336.250000 19.316227
547440.125000 3380334.500000 19.405390
547444.000000 3380334.500000 20.137075
547455.875000 3380334.000000 19.740610
547458.875000 3380332.500000 19.330446
547461.625000 3380332.250000 19.176985
547472.000000 3380333.000000 19.121136
547481.062500 3380332.000000 19.474911
547489.750000 3380330.000000 19.278767
547493.375000 3380329.750000 18.899523
547495.812500 3380329.250000 19.023783
547499.562500 3380330.750000 19.206226
547504.562500 3380328.500000 18.959721
547511.125000 3380328.000000 19.054670
547518.312500 3380328.250000 19.121155
547520.312500 3380327.250000 18.947870
547523.062500 3380328.000000 18.903576
547526.500000 3380326.750000 18.923965
547532.125000 3380326.250000 19.154493
547535.250000 3380326.500000 19.127338
547539.687500 3380326.500000 21.036852
547541.937500 3380324.750000 20.617731
547544.937500 3380325.000000 21.070322
547566.562500 3380323.250000 19.919371
547569.750000 3380324.500000 20.310759
547572.250000 3380322.750000 19.908262
547578.562500 3380324.000000 20.095612
547581.125000 3380322.250000 20.107700
547584.125000 3380322.750000 19.889967
547588.000000 3380321.500000 19.928335
547591.062500 3380323.000000 20.167233
547594.437500 3380322.750000 20.087109
547596.750000 3380320.750000 19.814274
547600.687500 3380321.000000 19.895582
547602.437500 3380321.250000 19.966928
547608.750000 3380321.750000 19.903236
547614.875000 3380321.000000 19.992088
547621.125000 3380319.500000 19.931772
547625.375000 3380320.500000 19.692734
547627.312500 3380318.250000 19.908171
547633.625000 3380319.500000 19.997818
547637.062500 3380317.000000 22.673077
547638.125000 3380317.500000 24.252811
547658.312500 3380316.500000 22.954174
547665.312500 3380316.750000 20.097395
547667.562500 3380315.750000 20.525076
547670.062500 3380314.750000 20.255444
547672.687500 3380315.250000 20.546919
547675.875000 3380315.250000 20.043562
547682.000000 3380314.750000 20.064440
547684.937500 3380314.000000 20.263855
547688.375000 3380315.000000 20.081564
547691.312500 3380313.500000 20.140429
547694.625000 3380313.000000 19.944580
547704.375000 3380313.750000 20.050821
